ply
format ascii 1.0
element vertex 1183
property float x
property float y
property float z
property uchar red
property uchar green
property uchar blue
end_header
5.651064 1.565957 -11.619858 172 54 38
5.681818 1.568182 -11.636364 171 53 44
5.761837 1.583931 -11.753228 171 53 44
5.768240 1.579399 -11.719600 169 49 45
5.816092 1.586207 -11.770115 165 45 41
5.839080 1.586207 -11.770115 165 42 41
5.930233 1.604651 -11.906977 165 42 41
-3.914457 0.930710 -7.007699 52 117 165
-3.432099 0.839506 -6.320988 51 118 154
-2.115221 0.659794 -4.967859 125 64 91
-2.086539 0.653846 -4.923077 118 57 84
-2.057143 0.647619 -4.876191 95 58 81
-2.030697 0.642267 -4.835891 79 42 65
-2.003511 0.636630 -4.793447 61 38 68
-1.976798 0.631090 -4.751740 58 35 65
-1.952792 0.626367 -4.716177 51 35 72
-1.930246 0.622070 -4.683819 50 34 71
-1.908007 0.617831 -4.651902 55 42 89
-1.882883 0.612613 -4.612613 67 54 101
-1.873874 0.612613 -4.612613 94 90 136
-1.864865 0.612613 -4.612613 126 122 168
-1.867422 0.616431 -4.641360 158 163 206
-4.625000 4.250000 -32.000000 195 158 142
-4.562500 4.250000 -32.000000 195 158 142
-4.500000 4.250000 -32.000000 195 158 142
-4.437500 4.250000 -32.000000 196 159 143
-3.970370 4.029630 -30.340740 197 167 144
-3.017964 3.257485 -24.526947 197 180 153
-2.826211 3.099715 -23.339031 195 180 157
-2.780627 3.099715 -23.339031 195 180 157
-2.831858 3.209440 -24.165192 196 183 159
-2.851964 3.287009 -24.749245 196 183 159
-2.770149 3.247761 -24.453732 194 184 155
-2.722388 3.247761 -24.453732 194 184 155
-2.658754 3.228487 -24.308605 193 184 152
-2.603550 3.218935 -24.236687 193 184 152
-2.725552 3.432177 -25.842272 196 182 154
-2.641745 3.389408 -25.520248 195 181 153
-2.583851 3.378882 -25.440994 196 182 154
-2.526316 3.368421 -25.362228 196 182 154
-2.476780 3.368421 -25.362228 198 181 154
-2.434783 3.378882 -25.440994 197 180 153
-2.377709 3.368421 -25.362228 197 180 146
-2.342679 3.389408 -25.520248 197 180 146
-2.875000 4.250000 -32.000000 206 177 147
-2.812500 4.250000 -32.000000 208 179 149
-2.750000 4.250000 -32.000000 154 109 96
1.881356 1.152542 -8.677966 118 165 103
1.898305 1.152542 -8.677966 121 165 104
1.762583 1.033238 -7.779677 128 161 104
5.551021 1.586006 -11.941691 171 55 36
5.534009 1.574530 -11.855282 175 59 40
5.541126 1.569986 -11.821068 184 72 45
5.580318 1.574530 -11.855282 186 74 47
5.603473 1.574530 -11.855282 190 75 47
5.602305 1.567723 -11.804034 186 71 43
5.577143 1.554286 -11.702857 185 70 42
5.576102 1.547653 -11.652916 180 65 37
5.582979 1.543262 -11.619858 177 60 35
5.613636 1.545455 -11.636364 172 55 30
5.636364 1.545455 -11.636364 172 54 36
5.651064 1.543262 -11.619858 171 53 35
5.673759 1.543262 -11.619858 173 52 37
5.720798 1.549857 -11.669516 173 52 37
5.751783 1.552068 -11.686163 171 50 35
5.791130 1.556509 -11.719600 169 48 33
5.889855 1.576812 -11.872464 165 47 31
-3.231198 0.746518 -5.704735 54 117 179
-3.188966 0.739310 -5.649655 54 117 179
-3.149692 0.732741 -5.599453 50 119 172
-3.119565 0.728261 -5.565217 50 119 172
-3.845378 0.900840 -6.884034 50 119 168
-2.757257 0.662137 -5.059914 55 120 161
-2.740604 0.660505 -5.047443 56 121 160
-2.735802 0.661728 -5.056790 54 119 158
-2.117790 0.650880 -4.973892 128 67 92
-2.089049 0.645006 -4.929001 119 58 83
-2.059595 0.638856 -4.882002 99 56 79
-2.031896 0.633196 -4.838748 87 44 67
-2.003511 0.627267 -4.793447 65 37 69
-1.977945 0.622171 -4.754498 60 32 64
-1.952792 0.617156 -4.716177 53 33 69
-1.931350 0.613272 -4.686499 51 31 67
-1.909091 0.609091 -4.654545 54 39 82
-1.882883 0.603604 -4.612613 77 62 105
-1.873874 0.603604 -4.612613 90 87 133
-1.864865 0.603604 -4.612613 131 128 174
-1.855856 0.603604 -4.612613 163 169 214
-1.856254 0.606678 -4.636106 153 159 204
-1.848245 0.607022 -4.638731 153 163 200
-3.733333 3.248485 -24.824242 191 166 166
-4.562500 4.187500 -32.000000 194 156 143
-4.437500 4.187500 -32.000000 196 159 143
-3.787986 3.787986 -28.946997 195 164 144
-3.679442 3.735192 -28.543554 192 171 143
-3.000000 3.190476 -24.380953 196 179 152
-2.850575 3.080460 -23.540230 195 181 155
-2.780627 3.054131 -23.339031 195 181 155
-2.798834 3.125365 -23.883383 195 182 158
-2.792899 3.171598 -24.236687 195 182 158
-2.745562 3.171598 -24.236687 193 183 156
-2.698225 3.171598 -24.236687 193 183 156
-2.650887 3.171598 -24.236687 193 183 154
-2.588235 3.152941 -24.094118 193 183 154
-2.556213 3.171598 -24.236687 196 182 154
-2.526316 3.318886 -25.362228 198 181 154
-2.476780 3.318886 -25.362228 197 180 153
-2.427245 3.318886 -25.362228 197 180 153
-2.370370 3.308642 -25.283951 200 179 149
-2.306748 3.288344 -25.128834 199 178 148
-2.278638 3.318886 -25.362228 205 176 146
-2.812500 4.187500 -32.000000 210 181 151
1.851380 1.138004 -8.696391 115 162 98
1.862434 1.134392 -8.668783 119 163 102
1.869474 1.128421 -8.623158 121 165 104
1.892291 1.131996 -8.650476 123 165 105
1.765937 1.019981 -7.794481 127 162 106
5.558139 1.558140 -11.906977 174 61 39
5.557164 1.551375 -11.855282 182 71 44
5.572254 1.549133 -11.838150 183 72 45
5.587302 1.546898 -11.821068 182 72 42
5.570200 1.535817 -11.736390 182 72 42
5.577143 1.531429 -11.702857 183 71 44
5.576102 1.524893 -11.652916 178 66 39
5.590909 1.522727 -11.636364 176 61 37
5.613636 1.522727 -11.636364 173 58 34
5.636364 1.522727 -11.636364 172 54 38
5.659091 1.522727 -11.636364 171 53 37
5.681818 1.522727 -11.636364 172 51 36
5.720798 1.527066 -11.669516 171 50 35
5.751783 1.529244 -11.686163 169 51 33
5.774608 1.529244 -11.686163 167 49 31
5.889855 1.553623 -11.872464 165 47 29
-3.322902 0.751067 -5.826458 61 119 176
-3.242340 0.735376 -5.704735 61 119 176
-3.200000 0.728276 -5.649655 60 121 170
-3.160629 0.721804 -5.599453 60 121 170
-3.121951 0.715447 -5.550136 57 123 166
-3.094340 0.711590 -5.520216 56 122 165
-3.069081 0.708250 -5.494299 57 121 165
-3.046092 0.705411 -5.472278 57 121 165
-2.782609 0.655901 -5.088199 63 120 166
-2.750462 0.650647 -5.047443 62 119 165
-2.732187 0.648649 -5.031941 62 119 165
-2.709046 0.645477 -5.007335 62 119 165
-2.677987 0.640388 -4.967859 62 119 165
-2.121655 0.642336 -4.982968 131 70 99
-2.091566 0.636145 -4.934940 122 61 90
-2.060823 0.629696 -4.884913 107 54 83
-2.031896 0.623745 -4.838748 96 43 72
-2.003511 0.617905 -4.793447 73 37 67
-1.977945 0.612885 -4.754498 67 31 61
-1.952792 0.607945 -4.716177 57 33 68
-1.931350 0.604119 -4.686499 55 31 66
-1.910176 0.600341 -4.657192 45 33 73
-1.882883 0.594595 -4.612613 79 67 107
-1.873874 0.594595 -4.612613 96 97 137
-1.864865 0.594595 -4.612613 134 135 175
-1.855856 0.594595 -4.612613 162 168 211
-1.846847 0.594595 -4.612613 152 158 201
-1.847199 0.597623 -4.636106 151 161 196
-1.843360 0.599319 -4.649262 153 163 198
-3.759036 3.180723 -24.674698 195 172 172
-3.677612 3.152239 -24.453732 189 166 166
-3.432024 3.190332 -24.749245 195 159 136
-3.970370 3.911111 -30.340740 195 164 137
-3.731449 3.731449 -28.946997 193 168 139
-3.240506 3.341772 -25.924051 195 177 146
-2.982249 3.124260 -24.236687 197 179 148
-2.850575 3.034483 -23.540230 193 181 150
-2.804598 3.034483 -23.540230 193 181 150
-2.758621 3.034483 -23.540230 192 182 153
-2.744186 3.069767 -23.813953 193 183 154
-2.697675 3.069767 -23.813953 193 183 154
-2.651163 3.069767 -23.813953 193 183 154
-2.619883 3.087719 -23.953217 195 183 152
-2.603550 3.124260 -24.236687 195 183 152
-3.187500 4.125000 -32.000000 195 181 151
-3.125000 4.125000 -32.000000 195 181 153
-3.062500 4.125000 -32.000000 195 181 153
-2.370370 3.259259 -25.283951 197 178 152
-2.306748 3.239264 -25.128834 195 176 150
-2.875000 4.125000 -32.000000 199 175 157
-2.812500 4.125000 -32.000000 205 181 163
-2.750000 4.125000 -32.000000 190 153 148
-2.687500 4.125000 -32.000000 134 97 92
-2.625000 4.125000 -32.000000 89 48 54
1.569524 1.005714 -7.801905 111 164 102
1.593870 1.011494 -7.846743 111 164 100
1.609195 1.011494 -7.846743 111 164 100
1.636711 1.009560 -7.831740 113 167 98
1.652008 1.009560 -7.831740 114 166 98
1.667304 1.009560 -7.831740 114 166 98
1.668246 1.000948 -7.764929 116 165 100
1.683412 1.000948 -7.764929 118 167 102
1.886316 1.111579 -8.623158 122 166 103
1.750714 1.004757 -7.794481 126 166 102
1.765937 1.004757 -7.794481 130 161 102
1.781161 1.004757 -7.794481 132 163 104
5.566230 1.537118 -11.924309 175 62 42
5.557164 1.528220 -11.855282 178 66 39
5.564214 1.523810 -11.821068 181 69 42
5.587302 1.523810 -11.821068 182 72 42
5.570200 1.512894 -11.736390 183 73 43
5.593123 1.512894 -11.736390 183 70 46
5.616046 1.512894 -11.736390 179 66 42
5.638968 1.512894 -11.736390 178 60 42
5.653791 1.510730 -11.719600 174 56 38
5.660485 1.506419 -11.686163 174 53 38
5.683310 1.506419 -11.686163 171 50 35
5.706134 1.506419 -11.686163 170 49 32
5.778417 1.519424 -11.787050 171 50 33
5.860465 1.534884 -11.906977 173 53 31
5.883721 1.534884 -11.906977 169 49 27
-3.438596 0.760234 -5.988304 67 123 174
-3.353362 0.743920 -5.859800 66 122 173
-3.311127 0.737066 -5.805811 64 123 173
-3.242340 0.724234 -5.704735 64 123 173
-3.193393 0.715760 -5.637990 65 126 173
-3.160629 0.710868 -5.599453 64 125 172
-3.121951 0.704607 -5.550136 59 123 167
-3.079812 0.697518 -5.494299 58 122 166
-3.040532 0.691030 -5.443189 60 122 166
-3.025879 0.690113 -5.435966 60 122 166
-2.997361 0.686016 -5.403694 63 120 166
-2.782609 0.645963 -5.088199 64 120 162
-2.750462 0.640789 -5.047443 64 120 162
-2.715507 0.634921 -5.001221 63 121 162
-2.687690 0.630685 -4.967859 63 121 162
-2.671506 0.629159 -4.955838 60 122 162
-2.637890 0.623501 -4.911271 60 122 162
-2.091566 0.626506 -4.934940 124 59 94
-2.060823 0.620155 -4.884913 114 54 83
-2.030697 0.613932 -4.835891 104 44 73
-2.001169 0.607832 -4.787843 76 43 63
-1.975652 0.602899 -4.748985 67 34 54
-1.951669 0.598389 -4.713464 56 33 61
-1.930246 0.594625 -4.683819 58 35 63
-1.910176 0.591245 -4.657192 40 29 66
-1.882883 0.585586 -4.612613 76 65 102
-1.873874 0.585586 -4.612613 106 107 149
-1.864865 0.585586 -4.612613 141 142 184
-1.855856 0.585586 -4.612613 161 170 212
-1.846847 0.585586 -4.612613 151 160 202
-1.848245 0.588901 -4.638731 151 163 197
-1.857643 0.606768 -4.779463 148 162 202
-1.838654 0.603598 -4.754498 138 152 203
-1.829367 0.603598 -4.754498 115 129 180
-3.725373 3.104478 -24.453732 192 169 171
-3.666667 3.095238 -24.380953 190 167 169
-3.640718 3.113772 -24.526947 194 161 153
-3.528701 3.141994 -24.749245 194 155 135
-3.428571 3.095238 -24.380953 195 156 132
-3.380952 3.095238 -24.380953 195 156 132
-4.375000 4.062500 -32.000000 193 159 131
-3.473684 3.421053 -26.947369 189 163 139
-3.291139 3.291139 -25.924051 193 167 143
-3.029586 3.076923 -24.236687 191 172 146
-2.913295 3.005780 -23.676300 196 177 151
-2.850575 2.988506 -23.540230 196 184 153
-2.804598 2.988506 -23.540230 194 182 151
-2.758621 2.988506 -23.540230 191 183 153
-2.704871 2.979943 -23.472780 191 183 153
-2.651428 2.971429 -23.405714 193 183 156
-2.598291 2.962963 -23.339031 193 183 156
-2.552706 2.962963 -23.339031 193 183 156
-2.573099 3.040936 -23.953217 193 183 156
-3.125000 4.062500 -32.000000 197 181 151
-3.062500 4.062500 -32.000000 196 180 150
-3.000000 4.062500 -32.000000 196 179 152
-2.937500 4.062500 -32.000000 194 177 150
-2.875000 4.062500 -32.000000 201 177 157
-2.812500 4.062500 -32.000000 201 177 157
-2.750000 4.062500 -32.000000 199 162 155
-2.687500 4.062500 -32.000000 139 102 95
-2.625000 4.062500 -32.000000 103 60 64
1.609195 0.996169 -7.846743 111 164 98
1.487719 0.912281 -7.185965 115 167 97
1.500438 0.911481 -7.179667 115 167 97
1.637915 0.985782 -7.764929 116 165 98
1.654649 0.986717 -7.772296 116 165 98
1.668246 0.985782 -7.764929 118 165 103
1.683412 0.985782 -7.764929 118 165 103
1.698578 0.985782 -7.764929 121 165 104
1.733461 0.997124 -7.854267 122 166 105
1.747126 0.996169 -7.846743 126 166 104
1.754051 0.991420 -7.809342 126 166 104
1.765937 0.989534 -7.794481 130 161 102
1.781161 0.989534 -7.794481 128 159 100
5.566230 1.513828 -11.924309 174 58 37
5.549133 1.502890 -11.838150 179 64 36
5.564214 1.500721 -11.821068 183 68 40
5.587302 1.500721 -11.821068 185 73 42
5.626628 1.505065 -11.855282 186 74 43
5.682678 1.513828 -11.924309 183 71 44
5.714286 1.516035 -11.941691 177 65 38
5.737609 1.516035 -11.941691 177 59 43
5.727536 1.507246 -11.872464 174 56 40
5.717579 1.498559 -11.804034 171 52 41
5.740634 1.498559 -11.804034 170 51 40
5.780347 1.502890 -11.838150 171 50 37
5.837209 1.511628 -11.906977 171 50 37
5.894737 1.520468 -11.976608 169 51 35
-3.558227 0.769346 -6.154771 71 127 178
-3.452816 0.749086 -5.992685 70 126 177
-3.398844 0.739884 -5.919075 70 126 177
-3.365398 0.735104 -5.880833 69 125 176
-3.341917 0.732475 -5.859800 68 124 175
-3.278873 0.721127 -5.769014 69 125 176
-3.193393 0.704749 -5.637990 70 127 175
-3.169294 0.701851 -5.614805 69 126 174
-3.143247 0.698499 -5.587995 67 124 172
-3.079812 0.686787 -5.494299 67 124 172
-3.036496 0.679496 -5.435966 69 126 174
-3.001975 0.674128 -5.393022 66 123 171
-2.989474 0.673684 -5.389474 67 122 171
-2.949837 0.667101 -5.336808 68 123 172
-2.854603 0.650159 -5.201270 67 122 173
-2.793017 0.638404 -5.107232 68 122 176
-2.752158 0.631319 -5.050555 68 122 176
-2.715507 0.625153 -5.001221 69 124 173
-2.689320 0.621359 -4.970874 68 123 172
-2.673124 0.619855 -4.958838 64 121 165
-2.092827 0.617239 -4.937914 118 56 90
-2.059595 0.610250 -4.882002 108 57 83
-2.029499 0.604130 -4.833038 102 51 77
-2.000000 0.598131 -4.785047 80 46 64
-1.974508 0.593279 -4.746234 72 38 56
-1.950546 0.588844 -4.710753 57 35 60
-1.930246 0.585477 -4.683819 59 37 62
-1.910176 0.582149 -4.657192 51 35 76
-1.900000 0.581818 -4.654545 84 68 109
-1.873874 0.576577 -4.612613 109 105 151
-1.864865 0.576577 -4.612613 139 135 181
-1.867422 0.580170 -4.641360 158 165 205
-1.869159 0.598131 -4.785047 154 169 202
-1.857643 0.597433 -4.779463 149 164 197
-1.838654 0.594312 -4.754498 147 162 206
-1.824074 0.592593 -4.740741 119 134 178
-1.814815 0.592593 -4.740741 109 118 173
-1.804511 0.592250 -4.737999 113 122 177
-1.780838 0.587493 -4.699943 118 118 176
-3.725373 3.056716 -24.453732 191 168 172
-3.677612 3.056716 -24.453732 190 167 171
-3.455621 3.029586 -24.236687 193 153 136
-3.339130 2.968116 -23.744928 195 157 128
-3.292754 2.968116 -23.744928 195 157 128
-3.284457 3.002933 -24.023460 194 159 129
-3.200000 3.056716 -24.453732 195 161 135
-3.096774 3.002933 -24.023460 192 162 139
-3.014493 2.968116 -23.744928 195 165 142
-2.959538 2.959538 -23.676300 190 171 147
-2.896552 2.942529 -23.540230 193 174 150
-2.850575 2.942529 -23.540230 195 182 158
-2.804598 2.942529 -23.540230 194 181 157
-2.758621 2.942529 -23.540230 191 181 156
-2.704871 2.934098 -23.472780 192 182 157
-2.651428 2.925714 -23.405714 194 184 159
-2.598291 2.917379 -23.339031 193 183 158
-2.545455 2.909091 -23.272728 193 183 156
-2.507123 2.917379 -23.339031 193 183 156
-3.187500 4.000000 -32.000000 195 182 156
-3.125000 4.000000 -32.000000 195 183 154
-3.062500 4.000000 -32.000000 194 182 153
-3.000000 4.000000 -32.000000 194 180 150
-2.937500 4.000000 -32.000000 194 180 150
-2.875000 4.000000 -32.000000 202 181 151
-2.812500 4.000000 -32.000000 203 182 152
-2.750000 4.000000 -32.000000 200 165 146
-2.687500 4.000000 -32.000000 133 98 79
-2.625000 4.000000 -32.000000 100 58 53
1.501754 0.898246 -7.185965 114 165 104
1.660952 0.975238 -7.801905 117 163 104
1.669829 0.971537 -7.772296 120 164 105
1.683412 0.970616 -7.764929 121 165 106
1.716475 0.980843 -7.846743 121 165 104
1.748802 0.981783 -7.854267 127 167 105
1.759082 0.978967 -7.831740 125 165 103
1.770992 0.977099 -7.816794 129 162 105
1.781161 0.974310 -7.794481 126 159 102
5.665185 1.517037 -12.136296 175 61 44
5.557164 1.481910 -11.855282 179 66 44
5.580318 1.481910 -11.855282 182 69 47
5.603473 1.481910 -11.855282 186 73 49
5.659389 1.490539 -11.924309 188 75 51
5.699270 1.494890 -11.959124 183 70 50
5.745986 1.494890 -11.959124 175 60 48
5.760933 1.492711 -11.941691 172 57 45
5.750725 1.484058 -11.872464 171 53 46
5.765557 1.481910 -11.855282 168 50 43
5.788712 1.481910 -11.855282 167 47 41
5.837209 1.488372 -11.906977 167 47 41
5.877551 1.492711 -11.941691 167 48 37
-3.455344 0.737921 -5.997072 72 129 177
-3.428571 0.734694 -5.970846 70 127 175
-3.402032 0.731495 -5.944848 69 126 174
-3.184573 0.694215 -5.641873 69 126 174
-3.111111 0.682927 -5.550136 67 122 173
-3.034483 0.668435 -5.432361 67 122 171
-2.970684 0.656678 -5.336808 65 120 169
-2.958333 0.656250 -5.333333 65 120 169
-2.913771 0.648649 -5.271557 65 120 169
-2.877551 0.642857 -5.224490 67 121 175
-2.865520 0.642447 -5.221160 67 121 175
-2.833650 0.637571 -5.181530 70 121 178
-2.783042 0.628429 -5.107232 70 121 178
-2.742293 0.621455 -5.050555 69 121 173
-2.712362 0.616891 -5.013464 69 121 173
-2.059595 0.600715 -4.882002 109 61 95
-2.028302 0.594340 -4.830189 106 58 92
-2.000000 0.588785 -4.785047 83 47 77
-1.973364 0.583671 -4.743486 72 36 66
-1.949425 0.579310 -4.708046 61 34 72
-1.930246 0.576329 -4.683819 60 33 71
-1.910176 0.573053 -4.657192 64 43 95
-1.900000 0.572727 -4.654545 91 70 122
-1.873874 0.567568 -4.612613 115 110 163
-1.876487 0.571105 -4.641360 148 143 196
-1.869159 0.588785 -4.785047 153 167 203
-1.857643 0.588098 -4.779463 150 164 200
-1.838654 0.585026 -4.754498 149 163 210
-1.824074 0.583333 -4.740741 125 139 186
-1.814815 0.583333 -4.740741 121 128 184
-1.804511 0.582996 -4.737999 124 131 187
-1.780838 0.578313 -4.699943 131 129 188
-4.875000 3.937500 -32.000000 191 166 179
-3.826087 3.130435 -25.440994 190 165 178
-3.764706 3.120743 -25.362228 195 161 162
-3.715170 3.120743 -25.362228 190 156 157
-3.544910 3.017964 -24.526947 191 150 142
-3.455621 2.982249 -24.236687 191 150 142
-3.339130 2.921739 -23.744928 193 153 136
-3.292754 2.921739 -23.744928 193 153 136
-3.435583 3.092025 -25.128834 193 157 134
-3.228487 2.991098 -24.308605 191 159 135
-3.162242 2.973451 -24.165192 191 159 135
-3.096774 2.956012 -24.023460 188 160 137
-3.014493 2.921739 -23.744928 192 164 141
-2.959538 2.913295 -23.676300 190 168 145
-2.904899 2.904899 -23.608068 192 170 147
-2.850575 2.896552 -23.540230 189 175 149
-2.804598 2.896552 -23.540230 193 179 153
-2.758621 2.896552 -23.540230 192 179 153
-2.712644 2.896552 -23.540230 193 180 154
-2.659026 2.888252 -23.472780 192 182 153
-2.605714 2.880000 -23.405714 192 182 153
-2.545455 2.863636 -23.272728 195 183 152
-2.507123 2.871795 -23.339031 194 182 151
-2.504348 2.921739 -23.744928 194 182 153
-3.187500 3.937500 -32.000000 195 183 154
-3.125000 3.937500 -32.000000 195 181 153
-3.062500 3.937500 -32.000000 195 181 153
-3.000000 3.937500 -32.000000 195 181 151
-2.937500 3.937500 -32.000000 195 181 151
-2.875000 3.937500 -32.000000 200 181 155
-2.812500 3.937500 -32.000000 199 180 154
-2.750000 3.937500 -32.000000 204 172 161
-2.687500 3.937500 -32.000000 154 122 111
-2.625000 3.937500 -32.000000 101 58 60
-0.625000 3.937500 -32.000000 91 52 76
-0.562500 3.937500 -32.000000 91 52 76
1.676190 0.960000 -7.801905 121 165 104
1.691429 0.960000 -7.801905 121 165 104
1.764142 0.966443 -7.854267 123 165 107
1.769304 0.960915 -7.809342 126 163 109
1.779468 0.958175 -7.787072 123 160 106
1.789573 0.955450 -7.764929 139 144 105
1.801324 0.953642 -7.750237 130 135 96
1.816462 0.953642 -7.750237 146 123 96
5.581395 1.465116 -11.906977 185 72 48
5.588406 1.460870 -11.872464 185 72 48
5.619739 1.462990 -11.889695 185 72 48
5.651163 1.465116 -11.906977 184 71 47
5.699270 1.471533 -11.959124 181 69 49
5.737609 1.469388 -11.941691 176 62 47
5.744186 1.465116 -11.906977 172 58 43
5.759071 1.462990 -11.889695 171 54 42
5.757226 1.456647 -11.838150 168 51 39
5.772006 1.454545 -11.821068 167 50 38
5.837209 1.465116 -11.906977 164 47 35
5.894737 1.473684 -11.976608 163 46 32
-3.482353 0.729412 -6.023530 66 125 175
-3.460411 0.727273 -6.005865 68 127 177
-3.443631 0.726208 -5.997072 73 128 175
-3.010526 0.652632 -5.389474 67 119 171
-2.911877 0.633461 -5.231162 66 118 170
-2.896112 0.632250 -5.221160 64 119 170
-2.884076 0.631847 -5.217834 64 119 170
-2.873885 0.631847 -5.217834 67 121 177
-2.863694 0.631847 -5.217834 68 122 178
-2.853503 0.631847 -5.217834 69 123 179
-2.027107 0.584561 -4.827343 118 60 108
-1.997666 0.578763 -4.779463 84 50 93
-1.972222 0.574074 -4.740741 67 33 76
-1.949425 0.570115 -4.708046 58 34 78
-1.930246 0.567181 -4.683819 56 32 76
-1.909091 0.563636 -4.654545 59 41 92
-1.882883 0.558559 -4.612613 90 72 123
-1.873874 0.558559 -4.612613 129 121 173
-1.876487 0.562040 -4.641360 159 151 203
-1.879603 0.579778 -4.787843 156 166 201
-1.866978 0.578763 -4.779463 157 167 202
-1.854397 0.577752 -4.771112 156 166 201
-1.835458 0.574739 -4.746234 153 163 202
-1.824074 0.574074 -4.740741 138 148 187
-1.814815 0.574074 -4.740741 133 137 183
-1.805556 0.574074 -4.740741 138 142 188
-1.796296 0.574074 -4.740741 145 142 190
-1.732007 0.580456 -4.793447 104 101 147
-1.722645 0.580456 -4.793447 93 77 129
-4.875000 3.875000 -32.000000 188 168 179
-3.826087 3.080745 -25.440994 188 168 179
-3.764706 3.071208 -25.362228 190 164 167
-3.715170 3.071208 -25.362228 185 159 162
-3.665635 3.071208 -25.362228 190 153 146
-3.528701 2.996979 -24.749245 189 152 145
-3.480363 2.996979 -24.749245 191 154 136
-3.432024 2.996979 -24.749245 191 154 136
-3.435583 3.042945 -25.128834 191 157 131
-3.305389 2.970060 -24.526947 192 158 132
-3.228487 2.943620 -24.308605 193 159 133
-3.181009 2.943620 -24.308605 192 158 132
-3.133531 2.943620 -24.308605 191 159 137
-3.095238 2.952381 -24.380953 192 160 138
-3.002933 2.909091 -24.023460 192 165 146
-2.930233 2.883721 -23.813953 194 167 148
-2.858790 2.858790 -23.608068 193 171 150
-2.812680 2.858790 -23.608068 197 175 154
-2.807018 2.900585 -23.953217 193 178 155
-2.768328 2.909091 -24.023460 193 178 155
-2.713450 2.900585 -23.953217 193 180 154
-2.613180 2.842407 -23.472780 194 181 155
-2.567335 2.842407 -23.472780 195 183 154
-2.528736 2.850575 -23.540230 194 182 153
-2.482759 2.850575 -23.540230 196 182 156
-2.601227 3.042945 -25.128834 195 181 155
-2.575851 3.071208 -25.362228 198 181 156
-2.526316 3.071208 -25.362228 198 181 156
-3.125000 3.875000 -32.000000 196 182 156
-3.062500 3.875000 -32.000000 196 182 156
-3.000000 3.875000 -32.000000 196 182 156
-2.937500 3.875000 -32.000000 195 181 155
-2.875000 3.875000 -32.000000 198 179 153
-2.812500 3.875000 -32.000000 196 177 151
-2.750000 3.875000 -32.000000 212 185 166
-2.687500 3.875000 -32.000000 186 159 140
-2.625000 3.875000 -32.000000 122 85 80
-0.687500 3.875000 -32.000000 90 55 82
-0.625000 3.875000 -32.000000 93 53 84
-0.562500 3.875000 -32.000000 93 53 84
1.770992 0.946565 -7.816794 127 160 114
1.774408 0.940284 -7.764929 126 159 113
1.789573 0.940284 -7.764929 139 144 114
1.801324 0.938505 -7.750237 131 136 106
1.816462 0.938505 -7.750237 147 123 105
5.565217 1.437681 -11.872464 181 69 49
5.596517 1.439768 -11.889695 187 75 55
5.619739 1.439768 -11.889695 184 72 52
5.651163 1.441860 -11.906977 184 72 52
5.666183 1.439768 -11.889695 188 74 59
5.689405 1.439768 -11.889695 182 68 53
5.720930 1.441860 -11.906977 177 60 48
5.744186 1.441860 -11.906977 175 58 46
5.742403 1.435601 -11.855282 173 54 45
5.748918 1.431457 -11.821068 170 51 42
5.763689 1.429395 -11.804034 168 49 38
-3.516224 0.719764 -6.041298 70 121 180
-3.496689 0.718175 -6.027962 70 121 180
-3.484915 0.718175 -6.027962 67 120 167
-3.470588 0.717647 -6.023530 73 126 173
-2.925831 0.624041 -5.237852 71 118 165
-2.906310 0.622052 -5.221160 70 117 164
-2.892425 0.621260 -5.214513 67 118 164
-2.884076 0.621656 -5.217834 67 118 164
-2.873885 0.621656 -5.217834 67 120 165
-2.865520 0.622052 -5.221160 70 123 168
-2.027107 0.575133 -4.827343 122 59 107
-1.997666 0.569428 -4.779463 90 52 94
-1.972222 0.564815 -4.740741 75 37 79
-1.948306 0.560597 -4.705342 57 33 79
-1.930246 0.558033 -4.683819 55 31 77
-1.909091 0.554545 -4.654545 56 40 92
-1.882883 0.549550 -4.612613 99 83 135
-1.873874 0.549550 -4.612613 126 121 172
-1.903448 0.560920 -4.708046 157 152 203
-1.888954 0.570427 -4.787843 158 165 205
-1.875219 0.569096 -4.776676 158 165 205
-1.864802 0.568765 -4.773893 158 165 205
-1.847940 0.566454 -4.754498 157 164 204
-1.834395 0.565142 -4.743486 154 161 201
-1.824074 0.564815 -4.740741 148 155 195
-1.814815 0.564815 -4.740741 147 152 193
-1.752914 0.568765 -4.773893 159 168 210
-1.742574 0.568433 -4.771112 148 157 199
-1.735277 0.569096 -4.776676 128 136 183
-1.727963 0.569761 -4.782253 123 131 178
-1.719626 0.570093 -4.785047 118 119 168
-1.713283 0.571094 -4.793447 107 108 157
-3.900000 3.050000 -25.600000 189 169 178
-3.826087 3.031056 -25.440994 188 168 177
-3.764706 3.021672 -25.362228 192 167 167
-3.715170 3.021672 -25.362228 188 163 163
-3.665635 3.021672 -25.362228 192 155 150
-3.638629 3.040498 -25.520248 188 151 146
-3.566563 3.021672 -25.362228 187 150 134
-3.495385 3.003077 -25.206154 189 152 136
-3.467492 3.021672 -25.362228 190 154 131
-3.248485 2.957576 -24.824242 191 157 131
-3.200000 2.957576 -24.824242 193 159 133
-3.123123 2.930931 -24.600601 193 159 133
-3.075075 2.930931 -24.600601 192 162 139
-3.017964 2.922156 -24.526947 194 164 141
-2.883721 2.837209 -23.813953 191 168 145
-2.812680 2.812680 -23.608068 193 170 147
-2.815249 2.862170 -24.023460 193 174 150
-2.784661 2.879056 -24.165192 195 176 152
-2.737463 2.879056 -24.165192 194 180 150
-2.690265 2.879056 -24.165192 195 181 151
-2.604651 2.837209 -23.813953 196 182 152
-2.528736 2.804598 -23.540230 195 181 151
-2.482759 2.804598 -23.540230 197 180 153
-2.436782 2.804598 -23.540230 197 180 153
-2.575851 3.021672 -25.362228 196 181 158
-2.526316 3.021672 -25.362228 196 181 158
-2.453988 2.993865 -25.128834 196 183 159
-3.062500 3.812500 -32.000000 195 182 158
-3.000000 3.812500 -32.000000 195 182 156
-2.812500 3.812500 -32.000000 192 176 146
-2.750000 3.812500 -32.000000 209 183 159
-2.687500 3.812500 -32.000000 205 179 155
-2.625000 3.812500 -32.000000 149 111 102
-0.687500 3.812500 -32.000000 93 55 74
-0.625000 3.812500 -32.000000 96 57 81
-0.535316 3.628253 -30.453531 96 57 81
-0.500000 3.812500 -32.000000 92 58 78
1.774379 0.933078 -7.831740 128 161 117
1.779468 0.927757 -7.787072 128 161 117
1.791271 0.925996 -7.772296 144 147 118
4.834827 1.249680 -10.489117 168 54 37
4.849105 1.248082 -10.475703 168 54 37
4.894601 1.254499 -10.529563 169 56 36
4.915167 1.254499 -10.529563 175 62 42
4.974093 1.264249 -10.611399 184 71 51
4.994819 1.264249 -10.611399 185 72 52
5.611594 1.414493 -11.872464 185 72 50
5.642961 1.416546 -11.889695 185 72 50
5.666183 1.416546 -11.889695 185 68 52
5.689405 1.416546 -11.889695 181 64 48
5.712627 1.416546 -11.889695 175 58 46
5.710983 1.410405 -11.838150 172 55 43
5.701149 1.402299 -11.770115 171 54 42
5.715925 1.400287 -11.753228 169 52 40
5.714286 1.394286 -11.702857 168 51 37
-3.499264 0.706922 -6.032401 77 121 169
-3.487482 0.706922 -6.032401 78 121 163
-3.678878 0.748246 -6.385035 84 127 169
-2.915601 0.613811 -5.237852 68 121 153
-2.896112 0.611855 -5.221160 67 122 155
-2.884076 0.611465 -5.217834 67 122 155
-2.873885 0.611465 -5.217834 72 123 155
-1.997666 0.560093 -4.779463 96 57 88
-1.972222 0.555556 -4.740741 80 41 72
-1.946070 0.550775 -4.699943 62 40 76
-1.929143 0.548571 -4.681143 50 28 64
-1.909091 0.545455 -4.654545 49 33 83
-1.882883 0.540541 -4.612613 100 84 134
-1.873874 0.540541 -4.612613 118 118 165
-1.912240 0.554273 -4.729792 159 159 206
-1.903002 0.554273 -4.729792 166 173 211
-1.893764 0.554273 -4.729792 158 165 203
-1.875219 0.559767 -4.776676 159 165 201
-1.857226 0.557168 -4.754498 160 166 202
-1.842593 0.555556 -4.740741 159 165 201
-1.831214 0.554913 -4.735260 162 167 206
-1.821965 0.554913 -4.735260 157 162 201
-1.814815 0.555556 -4.740741 153 158 201
-1.751893 0.559115 -4.771112 147 164 194
-1.742574 0.559115 -4.771112 141 158 188
-1.735277 0.559767 -4.776676 130 145 187
-1.728972 0.560748 -4.785047 120 135 177
-1.719626 0.560748 -4.785047 106 115 166
-1.710280 0.560748 -4.785047 101 110 161
-1.703920 0.561732 -4.793447 107 97 154
-3.900000 3.000000 -25.600000 192 174 184
-3.826087 2.981366 -25.440994 192 174 184
-4.487085 3.542435 -30.228783 191 168 172
-4.444445 3.555556 -30.340740 187 164 168
-4.369004 3.542435 -30.228783 191 156 151
-3.696203 3.037975 -25.924051 186 151 146
-3.600000 3.000000 -25.600000 186 146 129
-3.495385 2.953846 -25.206154 187 147 130
-3.393939 2.909091 -24.824242 190 150 126
-3.371069 3.018868 -25.761005 194 156 129
-3.289720 2.990654 -25.520248 194 158 133
-3.190184 2.944785 -25.128834 194 158 133
-3.103030 2.909091 -24.824242 195 158 138
-3.017964 2.874252 -24.526947 196 159 139
-2.892128 2.798834 -23.883383 195 165 142
-2.780627 2.735043 -23.339031 197 167 144
-2.815249 2.815249 -24.023460 193 172 146
-2.784661 2.831858 -24.165192 197 176 150
-2.666667 2.857143 -24.380953 196 180 150
-2.528736 2.758621 -23.540230 197 181 151
-2.454545 2.727273 -23.272728 197 180 153
-2.409091 2.727273 -23.272728 197 180 153
-2.446483 2.935780 -25.051989 196 181 160
-2.397553 2.935780 -25.051989 196 181 160
-2.750000 3.750000 -32.000000 205 182 157
-2.687500 3.750000 -32.000000 214 191 166
-2.625000 3.750000 -32.000000 175 139 127
-2.562500 3.750000 -32.000000 106 70 58
-0.687500 3.750000 -32.000000 97 58 52
-0.625000 3.750000 -32.000000 105 66 44
-0.535316 3.568773 -30.453531 103 64 42
1.774379 0.917782 -7.831740 128 161 115
1.779468 0.912548 -7.787072 128 161 115
4.828644 1.227621 -10.475703 170 51 42
4.812183 1.218274 -10.395939 170 51 42
4.832487 1.218274 -10.395939 172 54 45
4.804020 1.206030 -10.291457 176 58 49
4.916773 1.229193 -10.489117 184 67 53
4.937260 1.229193 -10.489117 187 70 56
5.696093 1.389291 -11.855282 179 57 49
5.678161 1.379310 -11.770115 176 54 46
5.628369 1.361702 -11.619858 174 51 46
5.715925 1.377331 -11.753228 171 48 43
-1.997666 0.550758 -4.779463 103 60 90
-1.972222 0.546296 -4.740741 86 43 73
-1.946070 0.541595 -4.699943 64 37 75
-1.928041 0.539120 -4.678470 56 29 67
-1.909091 0.536364 -4.654545 48 32 80
-1.882883 0.531532 -4.612613 89 73 121
-1.873874 0.531532 -4.612613 117 114 160
-1.912240 0.545035 -4.729792 161 158 204
-1.903002 0.545035 -4.729792 167 174 212
-1.866512 0.547882 -4.754498 161 164 203
-1.852924 0.546613 -4.743486 162 165 204
-1.842593 0.546296 -4.740741 162 165 204
-1.833333 0.546296 -4.740741 161 164 203
-1.821965 0.545665 -4.735260 159 162 201
-1.814815 0.546296 -4.740741 157 162 203
-1.774697 0.545350 -4.732524 148 158 193
-1.751893 0.549796 -4.771112 149 166 196
-1.742574 0.549796 -4.771112 142 159 189
-1.735277 0.550437 -4.776676 132 150 191
-1.728972 0.551402 -4.785047 121 139 180
-1.719626 0.551402 -4.785047 105 119 170
-1.709282 0.551080 -4.782253 100 114 165
-1.700935 0.551402 -4.785047 105 100 160
-3.561129 2.959248 -25.680250 186 143 134
-3.446154 2.904615 -25.206154 188 144 126
-3.320755 2.968554 -25.761005 194 155 131
-3.239875 2.940810 -25.520248 195 156 132
-3.141104 2.895705 -25.128834 194 158 135
-3.027027 2.834835 -24.600601 194 158 135
-2.892128 2.752187 -23.883383 192 162 139
-2.772727 2.681818 -23.272728 194 164 141
-2.727273 2.681818 -23.272728 192 169 144
-2.528736 2.712644 -23.540230 195 178 151
-2.454545 2.681818 -23.272728 196 179 154
-2.750000 3.687500 -32.000000 200 179 151
-2.687500 3.687500 -32.000000 209 188 160
-2.625000 3.687500 -32.000000 204 175 163
-2.562500 3.687500 -32.000000 150 121 109
-2.500000 3.687500 -32.000000 117 78 85
-1.207547 3.562264 -30.913208 94 53 71
-1.109489 3.445256 -29.897810 93 52 70
-1.032258 3.383512 -29.362007 91 53 72
-0.644689 3.457875 -30.007326 94 50 50
-0.577617 3.407942 -29.574007 141 96 85
-0.519856 3.407942 -29.574007 162 117 106
1.867203 0.949698 -8.241448 128 159 114
8.835821 2.348259 -20.378109 204 88 69
4.812183 1.197970 -10.395939 170 47 44
4.795970 1.188917 -10.317380 171 48 47
4.785983 1.181477 -10.252816 178 55 54
4.800000 1.180000 -10.240000 181 62 53
4.844221 1.185930 -10.291457 187 68 59
5.605674 1.339007 -11.619858 174 50 43
5.604520 1.333333 -11.570621 172 49 46
5.651064 1.339007 -11.619858 169 46 43
-1.997666 0.541424 -4.779463 116 66 103
-1.971081 0.536726 -4.737999 89 39 76
-1.944954 0.532110 -4.697248 69 35 80
-1.928041 0.529983 -4.678470 64 30 75
-1.909091 0.527273 -4.654545 55 31 77
-1.882883 0.522523 -4.612613 89 65 111
-1.873874 0.522523 -4.612613 140 130 167
-1.864865 0.522523 -4.612613 169 159 196
-1.903002 0.535797 -4.729792 177 181 211
-1.858960 0.536416 -4.735260 162 165 202
-1.849711 0.536416 -4.735260 164 167 204
-1.838337 0.535797 -4.729792 164 167 204
-1.831214 0.536416 -4.735260 164 167 204
-1.821965 0.536416 -4.735260 162 165 202
-1.812717 0.536416 -4.735260 161 163 205
-1.756757 0.522523 -4.612613 162 164 206
-1.747748 0.522523 -4.612613 159 164 207
-1.750567 0.526077 -4.643991 158 163 206
-1.759450 0.531501 -4.691867 156 163 203
-1.765453 0.536106 -4.732524 156 163 203
-1.770530 0.540478 -4.771112 155 167 203
-1.750873 0.540163 -4.768335 151 165 203
-1.744606 0.541108 -4.776676 143 157 195
-1.738318 0.542056 -4.785047 131 148 192
-1.728972 0.542056 -4.785047 122 139 183
-1.719626 0.542056 -4.785047 112 128 181
-1.710280 0.542056 -4.785047 103 119 172
-3.320755 2.918239 -25.761005 194 154 130
-3.270440 2.918239 -25.761005 195 155 131
-3.190031 2.890966 -25.520248 195 157 130
-2.991098 2.753709 -24.308605 195 157 130
-2.858790 2.674352 -23.608068 193 159 133
-2.812680 2.674352 -23.608068 194 160 134
-2.727273 2.636364 -23.272728 192 166 142
-2.785185 3.437037 -30.340740 195 181 151
-2.746269 3.462687 -30.567163 196 180 148
-2.812500 3.625000 -32.000000 197 181 149
-2.750000 3.625000 -32.000000 202 181 153
-2.687500 3.625000 -32.000000 203 182 154
-2.625000 3.625000 -32.000000 217 184 167
-2.562500 3.625000 -32.000000 177 144 127
-2.500000 3.625000 -32.000000 144 97 98
-2.437500 3.625000 -32.000000 119 72 73
-2.375000 3.625000 -32.000000 103 57 72
-1.267925 3.501887 -30.913208 89 52 71
-1.176471 3.411765 -30.117647 87 53 69
-1.097473 3.350180 -29.574007 87 53 69
-1.032258 3.326165 -29.362007 87 53 71
-0.981949 3.350180 -29.574007 88 54 72
-0.826568 3.424354 -30.228783 94 51 70
-0.764706 3.411765 -30.117647 89 46 65
-0.705882 3.411765 -30.117647 87 44 46
-0.642336 3.386861 -29.897810 107 64 66
-0.592593 3.437037 -30.340740 177 146 74
-0.541353 3.488722 -30.796993 207 176 104
1.858586 0.937374 -8.274748 124 163 104
1.869084 0.934542 -8.249748 130 159 110
8.835821 2.308458 -20.378109 202 85 73
9.472637 2.308458 -20.378109 172 53 44
4.804020 1.165829 -10.291457 176 57 48
4.800000 1.160000 -10.240000 180 61 50
5.589816 1.312588 -11.586987 171 48 45
5.604520 1.310735 -11.570621 170 47 44
5.675214 1.321937 -11.669516 169 46 43
-1.971081 0.527473 -4.737999 98 46 83
-1.944954 0.522936 -4.697248 73 37 80
-1.928041 0.520845 -4.678470 69 33 76
-1.909091 0.518182 -4.654545 58 33 73
-1.882883 0.513514 -4.612613 92 67 107
-1.873874 0.513514 -4.612613 136 123 156
-1.864865 0.513514 -4.612613 164 151 184
-1.855856 0.513514 -4.612613 178 180 211
-1.846847 0.513514 -4.612613 163 165 196
-1.840547 0.519362 -4.665148 162 167 206
-1.829352 0.518771 -4.659841 162 167 206
-1.819215 0.518476 -4.657192 162 167 206
-1.809091 0.518182 -4.654545 162 167 206
-1.795918 0.517007 -4.643991 162 168 204
-1.783814 0.516129 -4.636106 162 168 204
-1.765766 0.513514 -4.612613 160 166 202
-1.756757 0.513514 -4.612613 160 166 202
-1.747748 0.513514 -4.612613 160 165 204
-1.738739 0.513514 -4.612613 159 164 203
-1.742484 0.517300 -4.646625 158 165 205
-1.735378 0.517888 -4.651902 157 164 204
-1.726292 0.517888 -4.651902 155 165 202
-1.714286 0.517007 -4.643991 155 165 202
-1.705215 0.517007 -4.643991 152 163 202
-1.693265 0.516129 -4.636106 146 157 196
-1.735277 0.531778 -4.776676 138 149 192
-1.725947 0.531778 -4.776676 131 142 185
-1.715618 0.531469 -4.773893 126 134 185
-1.706294 0.531469 -4.773893 118 126 177
-3.341772 2.886076 -25.924051 193 153 129
-3.270440 2.867924 -25.761005 193 153 129
-3.190031 2.841121 -25.520248 194 156 129
-2.904899 2.628242 -23.608068 194 156 129
-2.826211 2.598291 -23.339031 193 158 130
-2.812680 2.628242 -23.608068 193 158 130
-3.062500 3.562500 -32.000000 196 179 152
-3.000000 3.562500 -32.000000 196 179 152
-2.805970 3.402985 -30.567163 196 179 152
-2.875000 3.562500 -32.000000 196 180 148
-2.812500 3.562500 -32.000000 195 179 147
-2.750000 3.562500 -32.000000 198 177 149
-2.687500 3.562500 -32.000000 201 180 152
-2.625000 3.562500 -32.000000 210 179 161
-2.562500 3.562500 -32.000000 196 165 147
-2.500000 3.562500 -32.000000 161 114 115
-2.437500 3.562500 -32.000000 127 80 81
-2.375000 3.562500 -32.000000 99 52 72
-1.500000 3.562500 -32.000000 92 52 67
-1.437500 3.562500 -32.000000 92 52 67
-1.375000 3.562500 -32.000000 92 52 65
-1.267925 3.441509 -30.913208 90 50 63
-1.203007 3.428571 -30.796993 91 54 61
-1.113553 3.340659 -30.007326 91 54 61
-1.054945 3.340659 -30.007326 90 53 60
-1.062500 3.562500 -32.000000 91 54 61
-1.000000 3.562500 -32.000000 92 52 67
-0.892193 3.390335 -30.453531 92 52 67
-0.826568 3.365314 -30.228783 94 52 68
-0.764706 3.352941 -30.117647 85 43 59
-0.705882 3.352941 -30.117647 75 40 37
-0.651852 3.377778 -30.340740 124 89 86
-0.601504 3.428571 -30.796993 207 179 156
-0.562500 3.562500 -32.000000 219 191 168
-0.481203 3.428571 -30.796993 195 161 149
-0.437500 3.562500 -32.000000 101 67 55
8.796020 2.268657 -20.378109 207 94 81
8.813896 2.263027 -20.327543 202 87 75
8.875622 2.268657 -20.378109 194 79 67
9.814433 2.350515 -21.113401 172 53 44
9.705584 2.314721 -20.791878 175 56 47
5.629630 1.299145 -11.669516 171 47 42
5.717579 1.314121 -11.804034 167 47 41
5.740634 1.314121 -11.804034 165 45 39
-1.971081 0.518219 -4.737999 106 51 80
-1.944954 0.513761 -4.697248 81 42 75
-1.928041 0.511708 -4.678470 76 37 70
-1.909091 0.509091 -4.654545 63 36 72
-1.882883 0.504505 -4.612613 86 59 95
-1.873874 0.504505 -4.612613 132 121 158
-1.864865 0.504505 -4.612613 160 149 186
-1.855856 0.504505 -4.612613 176 179 216
-1.846847 0.504505 -4.612613 164 167 204
-1.853492 0.508802 -4.651902 161 168 206
-1.849658 0.510251 -4.665148 162 169 207
-1.838453 0.509670 -4.659841 163 169 205
-1.828312 0.509380 -4.657192 163 169 205
-1.818182 0.509091 -4.654545 163 170 201
-1.807037 0.508513 -4.649262 162 169 200
-1.793885 0.507361 -4.638731 163 170 199
-1.774775 0.504505 -4.612613 162 169 198
-1.765766 0.504505 -4.612613 161 169 202
-1.756757 0.504505 -4.612613 159 167 200
-1.747748 0.504505 -4.612613 158 165 203
-1.738739 0.504505 -4.612613 159 166 204
-1.742484 0.508225 -4.646625 160 165 206
-1.733409 0.508225 -4.646625 159 164 205
-1.724334 0.508225 -4.646625 158 165 205
-1.714286 0.507937 -4.643991 157 164 204
-1.705215 0.507937 -4.643991 152 161 203
-1.693265 0.507074 -4.636106 148 157 199
-1.686119 0.507649 -4.641360 143 154 197
-1.679909 0.508513 -4.649262 137 148 191
-1.671777 0.508802 -4.651902 132 141 185
-1.662692 0.508802 -4.651902 128 137 181
-1.656428 0.509670 -4.659841 145 138 183
-1.643587 0.508513 -4.649262 112 105 150
-1.681261 0.523059 -4.782253 85 52 101
-1.671921 0.523059 -4.782253 110 77 126
-2.985423 2.612245 -23.883383 190 154 129
-2.871795 2.552706 -23.339031 191 155 130
-2.826211 2.552706 -23.339031 192 157 125
-3.125000 3.500000 -32.000000 197 175 156
-3.062500 3.500000 -32.000000 197 175 156
-3.000000 3.500000 -32.000000 197 175 156
-2.937500 3.500000 -32.000000 197 175 156
-2.875000 3.500000 -32.000000 196 177 153
-2.812500 3.500000 -32.000000 196 177 153
-2.750000 3.500000 -32.000000 195 178 151
-2.687500 3.500000 -32.000000 195 178 151
-2.625000 3.500000 -32.000000 202 176 152
-2.562500 3.500000 -32.000000 207 181 157
-2.500000 3.500000 -32.000000 182 142 129
-2.437500 3.500000 -32.000000 134 94 81
-2.375000 3.500000 -32.000000 93 46 47
-1.500000 3.500000 -32.000000 95 54 64
-1.437500 3.500000 -32.000000 95 54 64
-1.375000 3.500000 -32.000000 93 53 68
-1.312500 3.500000 -32.000000 93 53 68
-1.250000 3.500000 -32.000000 91 55 71
-1.187500 3.500000 -32.000000 92 56 72
-1.125000 3.500000 -32.000000 91 57 73
-1.062500 3.500000 -32.000000 88 54 70
-1.000000 3.500000 -32.000000 92 51 69
-0.902256 3.368421 -30.796993 90 49 67
-0.832714 3.330855 -30.453531 89 50 57
-0.773234 3.330855 -30.453531 82 43 50
-0.713755 3.330855 -30.453531 79 54 41
-0.687500 3.500000 -32.000000 147 122 109
-0.625000 3.500000 -32.000000 208 189 167
-0.562500 3.500000 -32.000000 209 190 168
-0.500000 3.500000 -32.000000 219 191 179
-0.437500 3.500000 -32.000000 133 105 93
8.774194 2.223325 -20.327543 207 94 83
8.600484 2.169492 -19.835352 205 92 79
8.618358 2.164251 -19.787439 194 81 68
8.871287 2.217822 -20.277227 190 72 63
8.950495 2.217822 -20.277227 176 58 53
8.990099 2.217822 -20.277227 171 53 48
9.074627 2.228856 -20.378109 173 54 54
9.865285 2.321244 -21.222797 173 52 37
-1.971081 0.508965 -4.737999 111 54 82
-1.944954 0.504587 -4.697248 84 45 78
-1.926941 0.502283 -4.675799 79 40 73
-1.909091 0.500000 -4.654545 61 34 72
-1.882883 0.495495 -4.612613 88 61 99
-1.873874 0.495495 -4.612613 131 114 158
-1.864865 0.495495 -4.612613 163 146 190
-1.855856 0.495495 -4.612613 177 178 218
-1.846847 0.495495 -4.612613 168 169 209
-1.837838 0.495495 -4.612613 162 169 207
-1.844407 0.499716 -4.651902 161 168 206
-1.838453 0.500569 -4.659841 163 168 207
-1.829352 0.500569 -4.659841 163 168 207
-1.820250 0.500569 -4.659841 163 169 205
-1.809091 0.500000 -4.654545 162 168 204
-1.797957 0.499432 -4.649262 161 169 200
-1.784824 0.498301 -4.638731 161 169 200
-1.765766 0.495495 -4.612613 160 171 203
-1.756757 0.495495 -4.612613 159 170 202
-1.747748 0.495495 -4.612613 157 167 206
-1.738739 0.495495 -4.612613 157 167 206
-1.742484 0.499149 -4.646625 159 165 208
-1.733409 0.499149 -4.646625 159 165 208
-1.724334 0.499149 -4.646625 158 164 207
-1.714286 0.498866 -4.643991 156 162 205
-1.705215 0.498866 -4.643991 155 161 206
-1.696145 0.498866 -4.643991 153 159 204
-1.687075 0.498866 -4.643991 148 157 201
-1.678956 0.499149 -4.646625 145 154 198
-1.671777 0.499716 -4.651902 141 147 192
-1.662692 0.499716 -4.651902 137 143 188
-1.653606 0.499716 -4.651902 153 147 189
-1.643587 0.499432 -4.649262 105 99 141
-1.636364 0.500000 -4.654545 89 64 108
-1.628198 0.500284 -4.657192 110 85 129
-3.125000 3.437500 -32.000000 195 173 154
-3.062500 3.437500 -32.000000 195 173 154
-3.000000 3.437500 -32.000000 195 173 152
-2.812500 3.437500 -32.000000 195 176 152
-2.750000 3.437500 -32.000000 194 177 150
-2.687500 3.437500 -32.000000 194 177 150
-2.625000 3.437500 -32.000000 198 175 150
-2.562500 3.437500 -32.000000 205 182 157
-2.500000 3.437500 -32.000000 207 171 155
-2.437500 3.437500 -32.000000 150 114 98
-2.375000 3.437500 -32.000000 102 60 59
-0.773234 3.271375 -30.453531 79 37 53
-0.750000 3.437500 -32.000000 110 83 68
-0.687500 3.437500 -32.000000 183 156 141
-0.625000 3.437500 -32.000000 219 198 170
-0.562500 3.437500 -32.000000 209 188 160
-0.500000 3.437500 -32.000000 231 205 181
8.579710 2.125604 -19.787439 205 91 76
8.618358 2.125604 -19.787439 194 80 65
8.805897 2.162162 -20.127764 190 73 59
8.845209 2.162162 -20.127764 183 66 52
8.755448 2.130751 -19.835352 176 58 49
8.772947 2.125604 -19.787439 174 56 47
-1.971081 0.499711 -4.737999 120 59 86
-1.944954 0.495413 -4.697248 98 46 79
-1.925841 0.492869 -4.673132 92 40 73
-1.909091 0.490909 -4.654545 71 30 66
-1.882883 0.486486 -4.612613 103 62 98
-1.873874 0.486486 -4.612613 126 95 134
-1.875425 0.489241 -4.638731 175 144 183
-1.866365 0.489241 -4.638731 178 180 215
-1.858357 0.489518 -4.641360 167 169 204
-1.848245 0.489241 -4.638731 165 168 207
-1.842314 0.490074 -4.646625 164 167 206
-1.836364 0.490909 -4.654545 165 168 205
-1.830393 0.491747 -4.662493 165 168 205
-1.830664 0.494279 -4.686499 165 168 207
-1.813212 0.492027 -4.665148 164 167 206
-1.800000 0.490909 -4.654545 162 167 206
-1.789892 0.490630 -4.651902 163 168 207
-1.776771 0.489518 -4.641360 165 170 211
-1.756757 0.486486 -4.612613 162 167 208
-1.747748 0.486486 -4.612613 162 167 208
-1.738739 0.486486 -4.612613 160 165 206
-1.742484 0.490074 -4.646625 160 164 210
-1.735378 0.490630 -4.651902 160 164 210
-1.728255 0.491188 -4.657192 158 164 211
-1.720137 0.491468 -4.659841 158 164 211
-1.710063 0.491188 -4.657192 154 164 210
-1.700966 0.491188 -4.657192 152 162 208
-1.690909 0.490909 -4.654545 151 164 209
-1.680863 0.490630 -4.651902 147 160 205
-1.671777 0.490630 -4.651902 145 155 201
-1.662692 0.490630 -4.651902 143 153 199
-1.654545 0.490909 -4.654545 151 153 197
-1.645455 0.490909 -4.654545 94 96 140
-1.636364 0.490909 -4.654545 91 74 120
-1.608319 0.499133 -4.732524 181 88 139
-4.058824 3.176471 -30.117647 188 145 149
-2.687500 3.375000 -32.000000 195 178 151
-2.625000 3.375000 -32.000000 195 177 148
-2.562500 3.375000 -32.000000 197 179 150
-2.500000 3.375000 -32.000000 223 195 176
-2.437500 3.375000 -32.000000 192 164 145
-2.375000 3.375000 -32.000000 134 92 91
-0.523929 2.176322 -20.634760 81 42 47
-0.483627 2.176322 -20.634760 140 113 98
-0.687500 3.375000 -32.000000 203 176 161
-0.625000 3.375000 -32.000000 216 200 170
-0.562500 3.375000 -32.000000 199 183 153
-0.500000 3.375000 -32.000000 211 189 170
8.600484 2.092010 -19.835352 204 87 73
8.576923 2.076923 -19.692308 195 78 64
8.657004 2.086957 -19.787439 192 71 58
8.695652 2.086957 -19.787439 184 63 50
8.713253 2.081928 -19.739759 176 57 46
8.751807 2.081928 -19.739759 176 57 46
5.667141 1.229018 -11.652916 167 49 42
5.689900 1.229018 -11.652916 167 49 40
5.723944 1.216901 -11.538028 164 43 30
5.762712 1.220339 -11.570621 165 44 31
-1.971081 0.490457 -4.737999 129 64 90
-1.943840 0.485960 -4.694556 103 47 81
-1.925841 0.483742 -4.673132 93 37 71
-1.913440 0.482916 -4.665148 77 33 70
-1.901080 0.482092 -4.657192 101 57 94
-1.870602 0.481271 -4.649262 172 174 209
-1.860465 0.480998 -4.646625 167 169 204
-1.849292 0.480453 -4.641360 164 167 206
-1.841270 0.480726 -4.643991 164 167 206
-1.834279 0.481271 -4.649262 164 167 206
-1.862189 0.491025 -4.743486 165 168 207
-1.852924 0.491025 -4.743486 163 168 209
-1.837276 0.489325 -4.727063 163 168 209
-1.821737 0.487637 -4.710753 163 168 209
-1.812536 0.487637 -4.710753 163 168 209
-1.798165 0.486239 -4.697248 163 168 209
-1.769711 0.480998 -4.646625 162 167 208
-1.747748 0.477477 -4.612613 162 167 208
-1.752554 0.481271 -4.649262 160 165 206
-1.762478 0.486517 -4.699943 160 165 208
-1.755313 0.487076 -4.705342 160 165 208
-1.744119 0.486517 -4.699943 158 164 211
-1.735936 0.486797 -4.702641 158 164 211
-1.724771 0.486239 -4.697248 154 164 210
-1.713631 0.485682 -4.691867 153 163 209
-1.698630 0.484018 -4.675799 151 164 211
-1.689498 0.484018 -4.675799 151 164 211
-1.677937 0.485960 -4.694556 138 152 201
-1.659259 0.483191 -4.667806 144 153 197
-1.650142 0.483191 -4.667806 104 113 157
-1.627746 0.490173 -4.735260 154 91 141
-1.617562 0.489890 -4.732524 177 114 164
-1.608319 0.489890 -4.732524 186 106 155
-1.601852 0.490741 -4.740741 180 100 149
-4.058824 3.117647 -30.117647 189 147 146
-4.250000 3.312500 -32.000000 189 147 144
-2.625000 3.312500 -32.000000 192 178 152
-2.562500 3.312500 -32.000000 190 176 150
-2.500000 3.312500 -32.000000 203 180 164
-2.437500 3.312500 -32.000000 213 190 174
-2.375000 3.312500 -32.000000 174 136 136
-0.875000 3.312500 -32.000000 90 51 58
-0.526582 2.146835 -20.739241 80 41 48
-0.750000 3.312500 -32.000000 132 107 96
-0.687500 3.312500 -32.000000 211 186 175
-0.625000 3.312500 -32.000000 210 198 169
8.857856 2.114713 -20.428928 203 85 65
8.681265 2.063260 -19.931873 194 76 56
8.677966 2.053269 -19.835352 190 68 49
8.674699 2.043374 -19.739759 183 61 42
8.713253 2.043374 -19.739759 178 56 39
8.751807 2.043374 -19.739759 178 56 39
5.613636 1.204545 -11.636364 167 49 44
5.612447 1.199434 -11.586987 164 46 41
5.548747 1.181059 -11.409471 163 45 40
5.540166 1.174515 -11.346260 163 45 38
5.554634 1.172891 -11.330567 163 45 38
5.741844 1.202837 -11.619858 162 44 35
5.723944 1.194366 -11.538028 163 44 31
5.762712 1.197740 -11.570621 163 44 31
-1.943840 0.476791 -4.694556 115 56 96
-1.928041 0.475157 -4.678470 94 35 75
-1.916714 0.474615 -4.673132 98 45 87
-1.862578 0.472459 -4.651902 171 170 206
-1.851390 0.471923 -4.646625 164 167 204
-1.842314 0.471923 -4.646625 164 167 204
-1.870370 0.481481 -4.740741 163 169 203
-1.877408 0.485698 -4.782253 163 169 203
-1.856148 0.482599 -4.751740 163 168 207
-1.844728 0.482039 -4.746234 163 168 207
-1.832273 0.481203 -4.737999 162 169 209
-1.818811 0.480092 -4.727063 162 169 209
